0.00091169 -0.01520151 0.00374132
2.666E-05 -0.01546841 0.00373029
-0.00086745 -0.01556448 0.00374197
0.00475958 -0.0112469 -0.00490601
0.00470258 -0.01172094 -0.00317479
0.00151825 -0.01407951 0.00212933
0.00222486 -0.0136897 0.00023281
0.00178222 -0.01487267 0.00375706
0.00468728 -0.01150322 -0.0038875
0.00211698 -0.01368596 0.00132823
0.00164555 -0.01450435 0.00295294
0.00532103 -0.01038461 -0.00459421
0.00523011 -0.01065143 -0.00353066
0.00273953 -0.01342635 0.00151791
0.00227186 -0.0137968 0.0021961
0.00262488 -0.01441029 0.0037661
0.00524105 -0.0111181 -0.00274608
0.00571873 -0.00929498 -0.0043704
0.00378796 -0.01275245 0.00209436
0.0031198 -0.01340493 0.002281
0.00244135 -0.01409319 0.00297803
0.00566079 -0.00966343 -0.0025506
0.00564641 -0.01058439 -0.00194396
0.00386806 -0.0127926 0.0023572
0.00328897 -0.013603 0.00299532
0.00564125 -0.00926967 -0.00117254
0.00572937 -0.01029883 -0.00090602
0.00581176 -0.00805909 -0.00275241
0.00463358 -0.01197674 0.00219687
0.00402644 -0.01295115 0.00304487
0.00347564 -0.01387345 0.00378268
0.0056417 -0.00930369 0.00017152
0.00566828 -0.00810372 -0.0013195
0.00545708 -0.01070102 0.00162746
0.00516849 -0.0105851 0.00246816
0.00463552 -0.01195483 0.00248603
0.00425611 -0.01314282 0.00379629
0.0057077 -0.0102432 0.00035475
0.00545841 -0.00658627 -0.00155686
0.0055089 -0.00810892 -4.022E-05
0.00541859 -0.00956791 0.00136081
0.00477701 -0.01204585 0.00309455
0.00492437 -0.00500057 -0.00175279
0.00468176 -0.00513603 -0.00047331
0.0052487 -0.00664453 -0.00027815
0.00538704 -0.00808984 0.00111481
0.00533237 -0.01051124 0.00338023
0.00499963 -0.01219904 0.003813
0.00382245 -0.00391201 -0.00063796
0.00449566 -0.00521052 0.00070275
0.00534965 -0.00801485 0.00213784
0.00530834 -0.00948953 0.00234062
0.0050641 -0.00662945 0.00092217
0.00542133 -0.01102925 0.00403455
0.00407894 -0.00367482 -0.00192028
0.00365904 -0.00406092 0.00053978
0.00498167 -0.00658946 0.00191875
0.00546144 -0.00925673 0.00327526
0.00560666 -0.01042258 0.00458158
0.00561124 -0.01105396 0.00510009
0.00546736 -0.01155869 0.0046308
0.00296554 -0.00267565 -0.00205492
0.00273908 -0.00302842 -0.0007735
0.00359513 -0.00411202 0.00155862
0.00441657 -0.00523453 0.00169668
0.00499843 -0.00646222 0.00289539
0.00541306 -0.00784026 0.00308752
0.00553385 -0.00981786 0.00408997
0.00566383 -0.00998365 0.00523287
0.00563673 -0.0106707 0.0056519
0.00170731 -0.00201124 -0.00212208
0.00156401 -0.0024246 -0.00085525
0.00259686 -0.00324786 0.00043011
0.0025423 -0.00331664 0.00149075
0.00438305 -0.00517216 0.00272997
0.00547462 -0.00758609 0.0041272
0.00558492 -0.00888496 0.0045079
0.00558847 -0.00960232 0.00596861
0.00042613 -0.00157365 -0.00213924
0.00035697 -0.00201854 -0.00088228
0.00146572 -0.00268802 0.00036553
0.00357026 -0.00408315 0.00261236
0.00143076 -0.00277519 0.00144069
0.00437473 -0.00508029 0.00372739
0.00503319 -0.00628764 0.00390674
0.00557971 -0.00852813 0.00546842
0.00556436 -0.0103652 0.00629396
-0.00086745 -0.00138252 -0.00212357
-0.00086745 -0.00186063 -0.00087899
0.00030646 -0.00230529 0.00034591
0.00256035 -0.00327488 0.00252662
0.00029062 -0.00239587 0.00141256
0.00501931 -0.00609241 0.00487861
0.00546045 -0.00731586 0.00508932
0.00355284 -0.00403747 0.00361816
0.00547601 -0.00926987 0.00671119
0.0054073 -0.0101254 0.00694132
-0.00086745 -0.00213097 0.00036249
0.00145007 -0.00274093 0.0024741
-0.00086745 -0.00220595 0.00140017
0.00498819 -0.00589511 0.00583384
0.00538036 -0.00706501 0.00602861
0.00259077 -0.00319474 0.003529
0.00435205 -0.00495912 0.00470726
0.00529369 -0.00995452 0.0074197
0.00547886 -0.00821116 0.00637132
0.00030038 -0.00237308 0.00244514
-0.00086745 -0.00217855 0.00243971
0.00148412 -0.00264555 0.00347887
0.00495001 -0.00577534 0.00651242
0.00532037 -0.00690991 0.00668829
0.00354007 -0.00395298 0.0046039
0.00540692 -0.00906363 0.00721493
-0.00086745 -0.00213703 0.00342829
0.00150041 -0.00255378 0.00447597
0.0003179 -0.002307 0.00343804
0.00433882 -0.00481316 0.00568964
0.00432714 -0.00471063 0.00638248
0.00260035 -0.00310939 0.00452236
0.00524068 -0.00987479 0.00764286
0.00542552 -0.00803135 0.00694609
-0.00086745 -0.00205653 0.00443526
0.00032837 -0.00221249 0.00443836
0.00354187 -0.00383749 0.00560216
0.0035336 -0.0037628 0.00629461
0.00493219 -0.00571947 0.00682906
0.00499714 -0.01077935 0.00784099
0.00506399 -0.01085944 0.00763448
0.00529239 -0.00683754 0.00699609
0.00540062 -0.00794746 0.00721435
0.00537469 -0.0089674 0.00744996
-0.00086745 -0.00199287 0.00548423
0.00259726 -0.0030315 0.00554293
0.00432169 -0.00466278 0.00670577
0.00461922 -0.01169047 0.00795106
0.00469201 -0.01178565 0.00777551
0.00516879 -0.00671304 0.00782332
0.00528675 -0.00774242 0.00800757
0.00524712 -0.00872175 0.00821544
0.0050853 -0.00961052 0.00841189
-0.00086745 -0.00201025 0.00621474
0.00034055 -0.00212305 0.00549294
0.00150599 -0.00247748 0.00551668
0.00257966 -0.00300331 0.00626429
0.00425004 -0.0046051 0.00759506
0.00481343 -0.00565316 0.00769267
0.00407362 -0.01264789 0.00792989
0.00481896 -0.010499 0.00857899
0.00443883 -0.01134598 0.00872835
0.00498343 -0.00665172 0.00858951
0.00485507 -0.00938133 0.0091715
0.00033541 -0.0021482 0.00622661
0.00149324 -0.00246416 0.00624287
0.00352975 -0.00372796 0.00661771
0.00463354 -0.00569071 0.00851931
0.00411955 -0.01271497 0.0077906
0.00420421 -0.01094564 0.00956183
0.00390178 -0.01216138 0.0088677
0.00508959 -0.007594 0.00876835
0.00503473 -0.00850859 0.00896222
0.00458706 -0.01019304 0.00938654
-0.00086745 -0.00201837 0.00655564
0.00033301 -0.00215994 0.00656893
0.00148729 -0.00245795 0.00658177
0.00257145 -0.00299016 0.00660093
0.00346972 -0.00372695 0.00761538
0.00406826 -0.00475019 0.0085059
0.00371844 -0.01168548 0.00973228
0.00443196 -0.00582108 0.00925402
0.00477178 -0.00665205 0.00924944
0.0047562 -0.00830015 0.0096266
0.00426675 -0.00991388 0.01012576
-0.00086745 -0.00220441 0.00765377
0.00143827 -0.00262107 0.0076477
0.00332036 -0.00390677 0.0085737
0.0035185 -0.01125696 0.01044847
0.00424511 -0.00602627 0.00979383
0.00455802 -0.00670854 0.00972041
0.00485103 -0.00748919 0.00939531
0.00383269 -0.00504266 0.00936938
0.00454632 -0.0091029 0.00988634
-0.00086745 -0.00260449 0.0087539
0.00030442 -0.00232203 0.00765196
0.00251627 -0.00306069 0.0076397
0.00391814 -0.01063786 0.01028847
0.00439601 -0.00675083 0.00995802
0.00450432 -0.00733416 0.01003073
0.00464598 -0.00740357 0.00982286
0.00308411 -0.00428987 0.00946944
0.00411738 -0.008747 0.01059131
0.00026369 -0.00268646 0.00873712
0.00241182 -0.00332742 0.00863351
0.00336193 -0.01095021 0.01087273
0.00354527 -0.00547683 0.01015686
0.00364215 -0.0059248 0.01035125
0.0040812 -0.00622766 0.01006666
0.0043672 -0.00788424 0.01029653
0.00451639 -0.00808215 0.01010241
0.00381885 -0.0096496 0.01080634
-0.00086745 -0.00311474 0.00969557
0.00020644 -0.00318404 0.00968473
0.00136611 -0.00292075 0.00869674
0.00279451 -0.00479746 0.01027344
0.00356875 -0.01042731 0.01086047
0.00297642 -0.01115132 0.01113079
0.00301528 -0.011745 0.01067983
0.00300681 -0.00572689 0.01081157
0.00402179 -0.00820324 0.01070389
-0.00086745 -0.00376191 0.01054706
0.00013459 -0.00384566 0.01051841
0.00222877 -0.0037373 0.00956983
0.00124631 -0.00338872 0.00963641
0.00310895 -0.00947629 0.01145505
0.0023587 -0.01139129 0.01144337
0.00237688 -0.01214821 0.01091595
0.00302871 -0.0104187 0.01134163
0.00320969 -0.00600889 0.01077828
0.00360808 -0.00822018 0.01110324
-0.00086745 -0.00455051 0.01130879
6.45E-05 -0.00460012 0.01127383
0.00199959 -0.00432584 0.01037925
0.0010984 -0.00403161 0.01046305
0.00345026 -0.0086518 0.01123782
0.00160761 -0.01160518 0.01171827
0.00162143 -0.01241987 0.01111047
0.00235655 -0.01059048 0.01175776
0.00291614 -0.00633747 0.0111395
-0.00086745 -0.00543386 0.01185931
9.08E-06 -0.00547056 0.0118224
0.00246504 -0.00532638 0.01092557
0.00095848 -0.00475396 0.01117957
0.00318622 -0.0079037 0.01141673
0.00232138 -0.00975127 0.01196518
0.00082171 -0.01179824 0.01192769
0.00082289 -0.01262359 0.01128789
0.0016099 -0.01078155 0.01208963
0.00268815 -0.00619007 0.01122776
-0.00086745 -0.0063639 0.01226189
-3.19E-05 -0.00638629 0.01220002
0.00177152 -0.00498795 0.01106254
0.00084529 -0.00557823 0.01171408
0.00283851 -0.00821306 0.0116186
0.00273692 -0.00888772 0.01173898
-2.85E-06 -0.01276789 0.01141847
0.00078972 -0.01331156 0.01043918
-5.77E-06 -0.01191167 0.01206221
0.00082716 -0.01092908 0.0123164
0.00158992 -0.00991171 0.01229518
0.00255823 -0.00677129 0.01151221
-0.00086745 -0.0073148 0.01255105
-4.998E-05 -0.00732152 0.01248802
0.00221533 -0.00595602 0.01137944
0.00076966 -0.0064474 0.01209053
0.00159501 -0.00574418 0.01155602
0.00260992 -0.00744451 0.01166531
0.00225306 -0.0089688 0.01205608
-2.822E-05 -0.01347055 0.01056937
-0.00086745 -0.01196209 0.0121206
-7.45E-06 -0.01101052 0.0124666
0.0008028 -0.01000909 0.01253434
0.00281032 -0.00684533 0.01138086
-5.219E-05 -0.00817267 0.01267292
0.00073903 -0.00817368 0.01251789
0.00073436 -0.00733776 0.01234969
0.00209088 -0.00666305 0.01169647
0.00148715 -0.00654241 0.0119124
0.00289497 -0.00738342 0.01150428
0.00217428 -0.0081783 0.01200737
0.00153101 -0.00905882 0.0123644
-6.92E-05 -0.01409242 0.00964383
0.00074269 -0.01394216 0.00953499
-0.00086745 -0.01105477 0.01253382
-1.963E-05 -0.01006325 0.01270911
-0.00086745 -0.00819007 0.01274943
0.00146036 -0.007369 0.01216789
0.00209492 -0.00741679 0.0119175
0.00076258 -0.00914187 0.01257866
-0.00011008 -0.01474067 0.00884279
-0.00086745 -0.01284873 0.0114904
-0.00086745 -0.01010026 0.01278047
-0.00086745 -0.00922273 0.01281692
-4.059E-05 -0.00919696 0.0127404
0.00149109 -0.00817296 0.01231679
-0.00086745 -0.01355287 0.01063627
-0.00086745 -0.01417803 0.00970099
0.00073367 -0.01458842 0.00865944
-0.00086745 -0.0148088 0.00893712
-7.812E-05 -0.01497351 0.00877686
0.00077288 -0.01477996 0.00856654
-0.00086745 -0.01504809 0.00889137
-0.00086745 -0.01397486 -0.00445995
-0.00086745 -0.01405009 -0.00341434
-0.00171688 -0.01390686 -0.00444815
-0.00170916 -0.01398699 -0.00340144
-0.00086745 -0.01409525 -0.00237383
-0.00257853 -0.01372519 -0.00442118
-0.00086745 -0.01411686 -0.00131215
-0.00168318 -0.01404261 -0.00235731
-0.00255402 -0.01382551 -0.00335453
-0.00086745 -0.01414719 -0.00024099
-0.00165503 -0.01407209 -0.00129215
-0.00343643 -0.01346925 -0.00436247
-0.00163752 -0.01410009 -0.00021028
-0.002499 -0.01390557 -0.00230151
-0.00338934 -0.01358861 -0.00326189
-0.00086745 -0.01424203 0.00102958
-0.00243464 -0.01395538 -0.00122764
-0.0042597 -0.01314174 -0.00424286
-0.00164093 -0.01418925 0.00104442
-0.00327578 -0.01370854 -0.00220415
-0.00422053 -0.0129855 -0.00558692
-0.00086745 -0.01446306 0.00202294
-0.0024061 -0.01399241 -0.00013241
-0.00412261 -0.0132923 -0.0030375
-0.00501742 -0.01254967 -0.00546111
-0.00170951 -0.01502551 0.00292571
-0.00165841 -0.01441164 0.00203687
-0.00316334 -0.01379216 -0.00109512
-0.00242189 -0.01407164 0.00109326
-0.00386434 -0.01352351 -0.0020526
-0.00489024 -0.01310928 -0.00262841
-0.00503175 -0.01276415 -0.00411492
-0.00256031 -0.01479583 0.0029341
-0.00314369 -0.01385287 -1.751E-05
-0.00086745 -0.01509822 0.00291294
-0.00437642 -0.01343706 -0.00178415
-0.00578223 -0.01245511 -0.00318712
-0.00579563 -0.01196861 -0.00520647
-0.00245585 -0.01427699 0.00206081
-0.00363843 -0.01369003 -0.00096544
-0.00086745 -0.01556448 0.00374197
-0.00176156 -0.01546841 0.00373029
-0.00643748 -0.01172094 -0.00317479
-0.00571723 -0.01222606 -0.0040246
-0.00325315 -0.01407951 0.00212933
-0.00318338 -0.01390409 0.0011841
-0.00404294 -0.01363887 -0.00077319
-0.00264659 -0.01520151 0.00374132
-0.00697595 -0.0111181 -0.00274608
-0.00696501 -0.01065143 -0.00353066
-0.00642218 -0.01150322 -0.0038875
-0.00649448 -0.0112469 -0.00490601
-0.00357774 -0.01377119 9.301E-05
-0.00338045 -0.01450435 0.00295294
-0.00400677 -0.0137968 0.0021961
-0.00351712 -0.01487267 0.00375706
-0.00738131 -0.01058439 -0.00194396
-0.0073957 -0.00966343 -0.0025506
-0.00705593 -0.01038461 -0.00459421
-0.00385188 -0.01368596 0.00132823
-0.00395976 -0.0136897 0.00023281
-0.00435978 -0.01441029 0.0037661
-0.00746428 -0.01029883 -0.00090602
-0.00737615 -0.00926967 -0.00117254
-0.00745363 -0.00929498 -0.0043704
-0.00417626 -0.01409319 0.00297803
-0.0048547 -0.01340493 0.002281
-0.00447444 -0.01342635 0.00151791
-0.0073766 -0.00930369 0.00017152
-0.00740318 -0.00810372 -0.0013195
-0.00754666 -0.00805909 -0.0027524
-0.00502387 -0.013603 0.00299532
-0.00552286 -0.01275245 0.00209436
-0.0074426 -0.0102432 0.00035475
-0.00724381 -0.00810892 -4.022E-05
-0.00719332 -0.00658627 -0.00155686
-0.00521054 -0.01387345 0.00378268
-0.00560296 -0.0127926 0.0023572
-0.00719198 -0.01070102 0.00162746
-0.0071535 -0.00956791 0.00136081
-0.00679901 -0.00662945 0.00092217
-0.00698361 -0.00664453 -0.00027815
-0.00576134 -0.01295115 0.00304487
-0.00636848 -0.01197674 0.00219687
-0.00690339 -0.0105851 0.00246816
-0.00712194 -0.00808984 0.00111481
-0.00641667 -0.00513603 -0.00047331
-0.00599101 -0.01314282 0.00379629
-0.00637042 -0.01195483 0.00248603
-0.00708455 -0.00801485 0.00213784
-0.00623056 -0.00521052 0.00070275
-0.00665927 -0.00500057 -0.00175279
-0.00651192 -0.01204585 0.00309455
-0.00704324 -0.00948953 0.00234062
-0.00671657 -0.00658946 0.00191875
-0.00539394 -0.00406092 0.00053978
-0.00555735 -0.00391201 -0.00063796
-0.00581385 -0.00367482 -0.00192028
-0.00673453 -0.01219905 0.003813
-0.00706728 -0.01051124 0.00338023
-0.00719635 -0.00925673 0.00327526
-0.00615147 -0.00523453 0.00169668
-0.00447399 -0.00302842 -0.0007735
-0.00470044 -0.00267565 -0.00205492
-0.00433177 -0.00324786 0.00043011
-0.00715623 -0.01102925 0.00403455
-0.00714797 -0.00784026 0.00308752
-0.00673333 -0.00646222 0.00289539
-0.00533004 -0.00411202 0.00155862
-0.00329892 -0.0024246 -0.00085525
-0.00344221 -0.00201124 -0.00212208
-0.00320063 -0.00268802 0.00036553
-0.00720226 -0.01155869 0.0046308
-0.00726875 -0.00981786 0.00408997
-0.00720952 -0.00758609 0.0041272
-0.00611796 -0.00517216 0.00272997
-0.00427721 -0.00331664 0.00149075
-0.00209187 -0.00201854 -0.00088228
-0.00216103 -0.00157365 -0.00213924
-0.00204136 -0.00230529 0.00034591
-0.00734615 -0.01105396 0.00510009
-0.00734157 -0.01042258 0.00458158
-0.00739873 -0.00998365 0.00523287
-0.00731983 -0.00888496 0.0045079
-0.00530516 -0.00408315 0.00261236
-0.00610963 -0.00508029 0.00372739
-0.00316566 -0.00277519 0.00144069
-0.00086745 -0.00186063 -0.00087899
-0.00086745 -0.00138252 -0.00212357
-0.00086745 -0.00213097 0.00036249
-0.00737163 -0.0106707 0.0056519
-0.00731461 -0.00852813 0.00546842
-0.00429526 -0.00327488 0.00252662
-0.00676809 -0.00628764 0.00390674
-0.00528774 -0.00403747 0.00361816
-0.00202553 -0.00239587 0.00141256
-0.00086745 -0.00220595 0.00140017
-0.00732337 -0.00960232 0.00596861
-0.00318497 -0.00274093 0.0024741
-0.00719535 -0.00731586 0.00508932
-0.00432568 -0.00319474 0.003529
-0.00675421 -0.00609241 0.00487861
-0.00203528 -0.00237308 0.00244514
-0.00086745 -0.00217855 0.00243971
-0.00729926 -0.0103652 0.00629396
-0.00721377 -0.00821116 0.00637132
-0.00321903 -0.00264555 0.00347887
-0.00608696 -0.00495912 0.00470726
-0.00086745 -0.00213703 0.00342829
-0.0071422 -0.0101254 0.00694132
-0.00721091 -0.00926987 0.00671119
-0.00711526 -0.00706501 0.00602861
-0.0020528 -0.002307 0.00343804
-0.00433525 -0.00310939 0.00452236
-0.00323531 -0.00255378 0.00447597
-0.0067231 -0.00589511 0.00583384
-0.00702859 -0.00995452 0.0074197
-0.00716042 -0.00803135 0.00694609
-0.00206327 -0.00221249 0.00443836
-0.00086745 -0.00205653 0.00443526
-0.00527498 -0.00395298 0.0046039
-0.00705528 -0.00690991 0.00668829
-0.00668491 -0.00577534 0.00651242
-0.00714183 -0.00906363 0.00721493
-0.00086745 -0.00199287 0.00548423
-0.00433217 -0.0030315 0.00554293
-0.00607372 -0.00481316 0.00568964
-0.00702729 -0.00683754 0.00699609
-0.00697558 -0.00987479 0.00764286
-0.00713552 -0.00794746 0.00721435
-0.00207546 -0.00212305 0.00549294
-0.00527677 -0.00383749 0.00560216
-0.00606204 -0.00471063 0.00638248
-0.0067989 -0.01085944 0.00763448
-0.00673205 -0.01077935 0.00784099
-0.00710959 -0.0089674 0.00744996
-0.00690369 -0.00671304 0.00782332
-0.00666709 -0.00571947 0.00682906
-0.00324089 -0.00247748 0.00551668
-0.00086745 -0.00201025 0.00621474
-0.0052685 -0.00376281 0.00629461
-0.00635412 -0.01169047 0.00795106
-0.00702165 -0.00774242 0.00800757
-0.00682021 -0.00961052 0.00841189
-0.00654833 -0.00565316 0.00769267
-0.00431457 -0.00300331 0.00626429
-0.00207031 -0.0021482 0.00622661
-0.00605659 -0.00466278 0.00670577
-0.00642691 -0.01178565 0.00777551
-0.00617374 -0.01134598 0.00872835
-0.00698203 -0.00872175 0.00821544
-0.00655386 -0.010499 0.00857899
-0.00636845 -0.00569071 0.00851931
-0.00322814 -0.00246416 0.00624287
-0.00086745 -0.00201837 0.00655564
-0.00526465 -0.00372796 0.00661771
-0.00580852 -0.01264789 0.00792989
-0.00658997 -0.00938133 0.0091715
-0.00671834 -0.00665172 0.00858951
-0.00563668 -0.01216138 0.0088677
-0.00545335 -0.01168548 0.00973228
-0.00593911 -0.01094564 0.00956183
-0.00632196 -0.01019304 0.00938654
-0.00580316 -0.00475019 0.0085059
-0.00598494 -0.0046051 0.00759506
-0.00206791 -0.00215994 0.00656893
-0.00430635 -0.00299016 0.00660093
-0.00585445 -0.01271497 0.0077906
-0.00676963 -0.00850859 0.00896222
-0.00650669 -0.00665205 0.00924944
-0.00616686 -0.00582108 0.00925402
-0.0052534 -0.01125696 0.01044847
-0.00600165 -0.00991388 0.01012576
-0.00520462 -0.00372695 0.00761538
-0.00322219 -0.00245795 0.00658177
-0.00203932 -0.00232203 0.00765196
-0.00086745 -0.00220441 0.00765377
-0.0064911 -0.00830015 0.0096266
-0.0068245 -0.007594 0.00876835
-0.00565304 -0.01063786 0.01028847
-0.00628123 -0.0091029 0.00988634
-0.00556759 -0.00504266 0.00936938
-0.00481901 -0.00428987 0.00946944
-0.00505526 -0.00390677 0.0085737
-0.00425117 -0.00306069 0.00763971
-0.00317317 -0.00262107 0.0076477
-0.00086745 -0.00260449 0.0087539
-0.00598001 -0.00602627 0.00979383
-0.00658594 -0.00748919 0.00939531
-0.00509684 -0.01095021 0.01087273
-0.00555375 -0.0096496 0.01080634
-0.00585229 -0.008747 0.01059131
-0.00452941 -0.00479746 0.01027344
-0.00414672 -0.00332742 0.00863351
-0.0019986 -0.00268646 0.00873712
-0.00528018 -0.00547683 0.01015686
-0.00629292 -0.00670854 0.00972041
-0.00625129 -0.00808215 0.01010241
-0.00475018 -0.011745 0.01067983
-0.00471133 -0.01115132 0.01113079
-0.00530366 -0.01042731 0.01086047
-0.00396368 -0.0037373 0.00956983
-0.00194135 -0.00318404 0.00968473
-0.00086745 -0.00311474 0.00969557
-0.00310101 -0.00292075 0.00869674
-0.00474171 -0.00572689 0.01081157
-0.0058161 -0.00622766 0.01006666
-0.00537705 -0.0059248 0.01035125
-0.00638088 -0.00740357 0.00982286
-0.00518516 -0.0086518 0.01123782
-0.00411178 -0.01214821 0.01091595
-0.00409361 -0.01139129 0.01144337
-0.00476362 -0.0104187 0.01134163
-0.00186949 -0.00384566 0.01051841
-0.00298121 -0.00338872 0.00963641
-0.00373449 -0.00432584 0.01037925
-0.00613091 -0.00675083 0.00995802
-0.00442306 -0.00619007 0.01122776
-0.00419994 -0.00532638 0.01092557
-0.00494459 -0.00600889 0.01077828
-0.00575669 -0.00820324 0.01070389
-0.00623922 -0.00733416 0.01003073
-0.00484386 -0.00947629 0.01145505
-0.00334251 -0.01160518 0.01171827
-0.00409146 -0.01059048 0.01175776
-0.00086745 -0.00376191 0.01054706
-0.00283331 -0.00403161 0.01046305
-0.00395023 -0.00595602 0.01137944
-0.00465104 -0.00633747 0.0111395
-0.0061021 -0.00788424 0.01029654
-0.00534298 -0.00822018 0.01110324
-0.00335633 -0.01241987 0.01111047
-0.0033448 -0.01078155 0.01208963
-0.00405628 -0.00975127 0.01196518
-0.0017994 -0.00460012 0.01127383
-0.00350642 -0.00498795 0.01106254
-0.00429313 -0.00677129 0.01151221
-0.00492112 -0.0079037 0.01141673
-0.00255779 -0.01262359 0.01128789
-0.00255662 -0.01179824 0.01192769
-0.00256207 -0.01092908 0.0123164
-0.0025377 -0.01000909 0.01253434
-0.00332483 -0.00991171 0.01229518
-0.00447182 -0.00888772 0.01173898
-0.00086745 -0.00455051 0.01130879
-0.00269338 -0.00475396 0.01117957
-0.00382578 -0.00666305 0.01169647
-0.00332991 -0.00574418 0.01155602
-0.00454522 -0.00684533 0.01138086
-0.00457342 -0.00821306 0.0116186
-0.00252462 -0.01331156 0.01043918
-0.00173206 -0.01276789 0.01141847
-0.00172913 -0.01191167 0.01206221
-0.00172745 -0.01101052 0.0124666
-0.00171528 -0.01006325 0.01270911
-0.00249749 -0.00914187 0.01257866
-0.00398797 -0.0089688 0.01205608
-0.00174398 -0.00547056 0.0118224
-0.00258019 -0.00557823 0.01171408
-0.00322205 -0.00654241 0.0119124
-0.00434482 -0.00744451 0.01166531
-0.00170668 -0.01347055 0.01056937
-0.00169431 -0.00919696 0.0127404
-0.00086745 -0.01196209 0.0121206
-0.00086745 -0.01010026 0.01278047
-0.00326591 -0.00905882 0.0123644
-0.00390919 -0.0081783 0.01200737
-0.00086745 -0.00543386 0.01185931
-0.00382982 -0.00741679 0.0119175
-0.00250456 -0.0064474 0.01209053
-0.00462987 -0.00738342 0.01150428
-0.00247759 -0.01394216 0.00953499
-0.00086745 -0.00922273 0.01281692
-0.00086745 -0.01105477 0.01253382
-0.00247393 -0.00817368 0.01251789
-0.00322599 -0.00817296 0.01231679
-0.001703 -0.00638629 0.01220002
-0.00319527 -0.007369 0.01216789
-0.00166571 -0.01409242 0.00964383
-0.00168271 -0.00817267 0.01267292
-0.00086745 -0.00819007 0.01274943
-0.00086745 -0.01284873 0.0114904
-0.00086745 -0.0063639 0.01226189
-0.00246926 -0.00733776 0.01234969
-0.00162482 -0.01474067 0.00884279
-0.00086745 -0.0073148 0.01255105
-0.00086745 -0.01355287 0.01063627
-0.00168492 -0.00732152 0.01248802
-0.00246858 -0.01458842 0.00865944
-0.00086745 -0.01417803 0.00970099
-0.00165679 -0.01497351 0.00877686
-0.00086745 -0.0148088 0.00893712
-0.00250778 -0.01477996 0.00856654
-0.00086745 -0.01504809 0.00889137
0.00470258 -0.01172094 -0.00317479
0.00524105 -0.0111181 -0.00274608
0.00488314 -0.0120557 -0.00275454
0.00564641 -0.01058439 -0.00194396
0.00547208 -0.01162893 -0.00224247
0.00585918 -0.01129535 -0.00144557
0.00544276 -0.01281418 -0.00230183
0.00572937 -0.01029883 -0.00090602
0.00595931 -0.01235666 -0.00183744
0.0057077 -0.0102432 0.00035475
0.00605389 -0.01113332 -0.00060286
0.00629286 -0.0120295 -0.00107512
0.0059835 -0.0135799 -0.00186796
0.00601421 -0.01111111 0.00058049
0.00644621 -0.01186096 -0.00023022
0.00649653 -0.01311445 -0.00145609
0.00545708 -0.01070102 0.00162746
0.00635369 -0.0118352 0.00084688
0.00651395 -0.01434686 -0.00141305
0.00678989 -0.01276644 -0.00071183
0.00564034 -0.01136892 0.00164694
0.0069966 -0.01388209 -0.00106925
0.00687795 -0.01259123 0.00011875
0.00463358 -0.01197674 0.00219687
0.00743679 -0.01471467 -0.0006488
0.00700511 -0.01514093 -0.0009326
0.0072464 -0.01352287 -0.00034925
0.00669324 -0.01261975 0.00112894
0.00381956 -0.01273304 0.001899
0.00472849 -0.01208732 0.00202526
0.00592053 -0.01208764 0.00183268
0.00775679 -0.01557989 -0.00016745
0.00742814 -0.01586422 -0.00041531
0.00760705 -0.014395 3.346E-05
0.00726473 -0.01336364 0.00045726
0.00300561 -0.01334848 0.00139081
0.00351578 -0.013999 0.00164571
0.00378796 -0.01275245 0.00209436
0.00506563 -0.01271851 0.00227023
0.00771556 -0.01636815 -5.983E-05
0.00621828 -0.01290203 0.00205133
0.00791298 -0.01524067 0.00039926
0.0070066 -0.01343596 0.00139475
0.00261699 -0.01364603 0.00041933
0.00324376 -0.01430487 0.00070752
0.00383787 -0.01493751 0.00093958
0.00796853 -0.01616544 0.00015165
0.00791646 -0.01673344 0.00020965
0.00539577 -0.01349035 0.00248016
0.00758131 -0.01421609 0.00079094
0.00268729 -0.01361093 -0.00062796
0.00339736 -0.01426783 -0.00029583
0.00403197 -0.01465816 0.0018221
0.00273953 -0.01342635 0.00151791
0.00421797 -0.01339713 0.00218171
0.00808446 -0.01658221 0.000383
0.00805879 -0.01701441 0.00040971
0.00812001 -0.01585344 0.00064494
0.00650318 -0.0137068 0.00222913
0.00728253 -0.01428661 0.00161481
0.00302914 -0.01340042 -0.00155809
0.00374606 -0.01406203 -0.00118041
0.00405126 -0.01488544 1.294E-05
0.00460537 -0.01411783 0.00238204
0.00222486 -0.0136897 0.00023281
0.00815092 -0.01690144 0.00054507
0.00785169 -0.01506254 0.00107171
0.0082264 -0.01633847 0.00083255
0.00676711 -0.01456648 0.002389
0.00352369 -0.01305486 -0.00235157
0.00422134 -0.01374745 -0.00191873
0.00473596 -0.01542299 0.00031617
0.00502273 -0.01484777 0.00250294
0.00572563 -0.01428429 0.00263326
0.00230804 -0.01363887 -0.00077319
0.00819595 -0.01717602 0.00057184
0.00815685 -0.01719002 0.00054804
0.00754963 -0.01507615 0.00179597
0.00802111 -0.01572067 0.00125313
0.00824646 -0.01676654 0.00096965
0.00264152 -0.01343706 -0.00178415
0.00315534 -0.01310928 -0.00262841
0.00440303 -0.01470609 -0.00080867
0.00508276 -0.01528777 -0.00040499
0.00457102 -0.0153037 0.00195842
0.00603531 -0.01512164 0.00273713
0.00819711 -0.01724621 0.00059952
0.00701898 -0.01531319 0.00247119
0.00773743 -0.01574576 0.00188655
0.00811414 -0.01622376 0.00137655
0.00812433 -0.01664621 0.00142591
0.00820762 -0.01716408 0.000627
0.00404733 -0.01245511 -0.00318712
0.00481583 -0.01329436 -0.00232305
0.00485338 -0.01444203 -0.00148757
0.0044868 -0.01549486 0.00112055
0.00577673 -0.01588344 5.33E-06
0.00546415 -0.01559996 0.0025561
0.00630047 -0.01586228 0.00275758
0.00723311 -0.01596828 0.00246339
0.0078524 -0.01624531 0.00191126
0.00820866 -0.01720241 0.00067229
0.00816601 -0.01723047 0.00069229
0.00817375 -0.01698273 0.00110262
0.00470258 -0.01172094 -0.00317479
0.00488314 -0.0120557 -0.00275454
0.00418713 -0.01257396 -0.00277034
0.00540143 -0.01404216 -0.00187712
0.00546906 -0.0150879 -0.00102712
0.00545557 -0.01598744 0.00063036
0.00513858 -0.01593835 0.00205494
0.00594163 -0.0166688 0.00255771
0.00602666 -0.01670763 0.00261539
0.0073944 -0.01641299 0.00240403
0.00801208 -0.01711344 0.00102429
0.00791208 -0.01666744 0.00188545
0.00544276 -0.01281418 -0.00230183
0.00610466 -0.01576364 -0.00053183
0.00518123 -0.01604596 0.0013012
0.00581763 -0.01624009 0.00256481
0.00612331 -0.01672067 0.00265803
0.00648627 -0.01640325 0.002717
0.00672892 -0.01674783 0.00264932
0.00808653 -0.01693015 0.00144971
0.00803156 -0.01726692 0.00133016
0.00754085 -0.01675892 0.00226894
0.00596899 -0.01476093 -0.00140938
0.0059835 -0.0135799 -0.00186796
0.00662576 -0.01625854 -0.00010925
0.00575808 -0.01642976 0.0014121
0.00561847 -0.01639002 0.00211171
0.00600827 -0.01682815 0.00257306
0.00613305 -0.01681383 0.00260319
0.0080153 -0.01724892 0.00140991
0.00709156 -0.01694176 0.00249481
0.00762982 -0.01702421 0.00212758
0.00700511 -0.01514093 -0.0009326
0.00652505 -0.0155206 -0.00091422
0.00651395 -0.01434686 -0.00141305
0.00632937 -0.01632976 0.00033165
0.00602582 -0.01637292 0.00084075
0.00596808 -0.01674854 0.00247965
0.00799291 -0.01728079 0.00126365
0.00796504 -0.01729557 0.00146216
0.00683866 -0.01724679 0.00248384
0.00768246 -0.01733802 0.00196197
0.00793014 -0.01705628 0.00184449
0.00742814 -0.01586422 -0.00041531
0.00698563 -0.01614454 -0.0003957
0.00701776 -0.01663099 0.0001792
0.00620692 -0.01671641 0.00148829
0.00604473 -0.01675331 0.00201274
0.0060104 -0.01680357 0.0023959
0.00654414 -0.01689383 0.00230668
0.00797459 -0.01735563 0.00135997
0.00693543 -0.0172257 0.0024779
0.00763021 -0.01729853 0.00202597
0.00734118 -0.01655718 -4.751E-05
0.0067193 -0.01663512 0.00056417
0.0064444 -0.0166717 0.00098449
0.00607608 -0.01685563 0.00246971
0.00616873 -0.01687512 0.00251874
0.00788988 -0.0173235 0.00144287
0.00697356 -0.01729821 0.00243197
0.00728634 -0.01709912 0.00236281
0.00676711 -0.01723738 0.00241481
0.00756285 -0.01734125 0.0020661
0.00771556 -0.01636815 -5.983E-05
0.00682459 -0.01696492 0.00113539
0.00641672 -0.01701538 0.00203771
0.0077035 -0.01720479 0.00162191
0.0071715 -0.01725673 0.00216894
0.0068635 -0.01736537 0.00243861
0.00759234 -0.01742131 0.00197952
0.0070833 -0.01693209 0.00077713
0.00791646 -0.01673344 0.00020965
0.00764163 -0.01687834 0.00027862
0.0066144 -0.0169846 0.00155597
0.00677769 -0.01731215 0.00235797
0.00699247 -0.01733247 0.00234674
0.00748408 -0.01737053 0.00204416
0.00737937 -0.01692692 0.00045939
0.00805879 -0.01701441 0.00040971
0.00682466 -0.01734434 0.00228287
0.00764175 -0.01735634 0.00186971
0.00775459 -0.01716408 0.00069991
0.00741717 -0.01715737 0.0009832
0.00716834 -0.01718905 0.00128339
0.00693027 -0.01722337 0.00163378
0.00787879 -0.0170957 0.00052262
0.00678085 -0.01726267 0.00194107
0.00691053 -0.01738602 0.00231977
0.00746982 -0.01734041 0.00140003
0.00811866 -0.01722931 0.00057229
0.00813188 -0.01725305 0.00066442
0.00782285 -0.01724408 0.000945
0.00723679 -0.01740157 0.00171526
0.00702795 -0.01742183 0.00193842
0.00699247 -0.01733247 0.00234674
0.0076375 -0.01729157 0.00115894
0.00815685 -0.01719002 0.00054804
0.00809601 -0.01724537 0.00061507
0.00757208 -0.01741086 0.00186042
0.00747085 -0.01742396 0.00197545
0.0071715 -0.01725673 0.00216894
0.00793033 -0.01733634 0.00125133
0.00819711 -0.01724621 0.00059952
0.00785788 -0.0173626 0.0013792
0.00749072 -0.01742299 0.001889
0.00748408 -0.01737053 0.00204416
0.00801208 -0.01711344 0.00102429
0.00816601 -0.01723047 0.00069229
0.0077035 -0.01720479 0.00162191
0.00786814 -0.01735344 0.00130036
0.00759234 -0.01742131 0.00197952
0.00799291 -0.01728079 0.00126365
0.00764175 -0.01735634 0.00186971
0.00797459 -0.01735563 0.00135997
0.00788988 -0.0173235 0.00144287
0.00289497 -0.00738342 0.01150428
0.00318622 -0.0079037 0.01141673
0.00319431 -0.00728256 0.01197589
0.00403017 -0.00807477 0.01155376
0.00354843 -0.0077677 0.01186396
0.00390403 -0.00765939 0.01234757
0.00353986 -0.00709868 0.01247976
0.00438956 -0.00798409 0.01199066
0.00398331 -0.00691262 0.01309963
0.00360808 -0.00822018 0.01110324
0.00494611 -0.00783254 0.01263156
0.0044048 -0.00749779 0.01299118
0.00460294 -0.00663565 0.01389434
0.00402179 -0.00820324 0.01070389
0.00486637 -0.00798579 0.01150473
0.00546221 -0.00782719 0.01211718
0.00507902 -0.00724942 0.01380292
0.00533333 -0.00626749 0.01470659
0.00451176 -0.00807397 0.01112531
0.00581479 -0.00748316 0.01158582
0.00661563 -0.00720622 0.01231976
0.00580995 -0.00689469 0.01460698
0.00624105 -0.00757884 0.01289389
0.0043672 -0.00788424 0.01029653
0.00610834 -0.00583658 0.0154304
0.0056786 -0.00759464 0.01343673
0.00520668 -0.00766402 0.01101996
0.00735356 -0.00685457 0.0130835
0.0048591 -0.00776615 0.01069731
0.00657086 -0.00643286 0.01533969
0.00697634 -0.00723364 0.01366988
0.00595724 -0.00690754 0.01114041
0.00670202 -0.00657665 0.01186834
0.00450432 -0.00733416 0.01003073
0.00686557 -0.00538299 0.01606059
0.00641137 -0.00724832 0.0142275
0.00744195 -0.00621268 0.01262544
0.00535518 -0.0071175 0.01062337
0.00499844 -0.00721281 0.01034086
0.00729189 -0.00593256 0.01597697
0.00757989 -0.00496063 0.01659066
0.00805485 -0.00638437 0.01388789
0.00769473 -0.00674913 0.01444911
0.00647699 -0.0058588 0.01166047
0.00721776 -0.00547998 0.01241853
0.00483825 -0.00660049 0.01023905
0.0051857 -0.00645933 0.01052337
0.00574118 -0.00620495 0.01097453
0.00795737 -0.00544724 0.01651659
0.00824337 -0.00457476 0.01700827
0.00715156 -0.00676687 0.01498053
0.00813388 -0.00577047 0.01344518
0.00674111 -0.00485277 0.01251814
0.00439601 -0.00675083 0.00995802
0.00480634 -0.00589262 0.01067228
0.00529922 -0.00562869 0.01111666
0.00855847 -0.004981 0.01694646
0.0088504 -0.00423052 0.01728794
0.00832769 -0.00622406 0.0151562
0.00782705 -0.00624041 0.01564595
0.00791498 -0.00507157 0.01324511
0.00600092 -0.00524504 0.01175182
0.00446535 -0.00604337 0.01036099
0.00908524 -0.0045332 0.01724188
0.00942905 -0.00390827 0.01748633
0.00865963 -0.00588787 0.01463891
0.00843124 -0.00571982 0.0162235
0.0074524 -0.00447529 0.01333582
0.00873389 -0.00532195 0.01423272
0.0047579 -0.00529394 0.01147628
0.00540136 -0.00489981 0.01211802
0.0061397 -0.00449913 0.01289757
0.0040812 -0.00622766 0.01006666
0.00431811 -0.0055516 0.01101221
0.00957176 -0.00409227 0.01745833
0.00996917 -0.00361509 0.01758272
0.00895408 -0.00520855 0.01670175
0.00887447 -0.00570533 0.01578988
0.00687176 -0.00414128 0.01369498
0.00853066 -0.00467791 0.01404653
0.00483891 -0.00491562 0.01266092
0.00396156 -0.00574778 0.01067293
0.0042418 -0.00529929 0.01199066
0.01000575 -0.00366225 0.01757556
0.00937995 -0.00470275 0.01705956
0.0091684 -0.00540767 0.01533182
0.00557472 -0.00451383 0.01345524
0.00810434 -0.00412834 0.01413008
0.00364215 -0.0059248 0.01035125
0.00384348 -0.00556562 0.01151234
0.0101144 -0.00353931 0.01757323
0.00975092 -0.00419532 0.01734749
0.00932414 -0.00519646 0.01633975
0.00923421 -0.00490659 0.0149722
0.00446432 -0.00528824 0.01323498
0.0063286 -0.00415902 0.0142264
0.00756918 -0.00382049 0.01446117
0.00867673 -0.00384973 0.0148813
0.0035102 -0.00577959 0.01112131
0.0038892 -0.00564332 0.01252202
0.01005169 -0.00368868 0.0175471
0.01009466 -0.00368727 0.01750511
0.00965569 -0.00469374 0.01678982
0.00905421 -0.00433634 0.0148073
0.0095695 -0.00494797 0.01595737
0.00519751 -0.00489289 0.01404162
0.00706853 -0.00383685 0.01495092
0.00820285 -0.00357715 0.01517446
0.00320969 -0.00600889 0.01077828
0.00350727 -0.0058932 0.01199821
0.00991853 -0.00418985 0.01718356
0.01002962 -0.0040773 0.01701033
0.0101295 -0.00360985 0.01742581
0.01011208 -0.00355457 0.01740982
0.00947421 -0.00405358 0.0155195
0.0096244 -0.00452964 0.01565718
0.00437795 -0.00591781 0.01368647
0.00775963 -0.00359163 0.01560808
0.00876343 -0.00341979 0.01582595
0.00596841 -0.00452378 0.01478762
0.00316944 -0.00613251 0.01155808
0.00379458 -0.00623384 0.01292789
0.01012317 -0.00365842 0.01746072
0.00983853 -0.00450859 0.01650498
0.00998646 -0.00367223 0.01681201
0.00915905 -0.00364735 0.0155813
0.00510916 -0.00553478 0.01449962
0.00291614 -0.00633747 0.0111395
0.00339464 -0.00645221 0.01235189
0.01005453 -0.00388783 0.0168744
0.00987943 -0.0041969 0.01628124
0.0067366 -0.00417303 0.01546821
0.00839343 -0.00343188 0.01618801
0.00923795 -0.00336997 0.01640705
0.00953266 -0.00353952 0.01622473
0.00460294 -0.00663565 0.01389434
0.00304886 -0.00664795 0.01186125
0.00398331 -0.00691262 0.01309963
0.0097675 -0.0038422 0.01617866
0.00588783 -0.00513781 0.01522833
0.0097675 -0.0038422 0.01617866
0.00746569 -0.0038893 0.01606607
0.00896221 -0.00337898 0.01667678
0.00966459 -0.00338518 0.01695085
0.00281032 -0.00684533 0.01138086
0.00353986 -0.00709868 0.01247976
0.00533333 -0.00626749 0.01470659
0.00984375 -0.00348824 0.01684001
0.00998646 -0.00367223 0.01681201
0.00666228 -0.00473895 0.01587433
0.00289497 -0.00738342 0.01150428
0.00319431 -0.00728256 0.01197589
0.00610834 -0.00583658 0.0154304
0.00814802 -0.00368038 0.01657033
0.00949698 -0.00339065 0.01711478
0.01002956 -0.00348098 0.01744543
0.0100755 -0.0035074 0.01741704
0.01011208 -0.00355457 0.01740982
0.00686557 -0.00538299 0.01606059
0.00739989 -0.00439039 0.01642575
0.00877943 -0.00356413 0.01696169
0.00998659 -0.00348238 0.01748749
0.0101144 -0.00353931 0.01757323
0.00757989 -0.00496063 0.01659066
0.00809311 -0.0040987 0.01687059
0.00938588 -0.0035032 0.01728801
0.00995175 -0.00355982 0.01756672
0.00996917 -0.00361509 0.01758272
0.00824337 -0.00457476 0.01700827
0.00995808 -0.00351124 0.01753188
0.00873847 -0.00387582 0.01718536
0.00942905 -0.00390827 0.01748633
0.00936098 -0.00369266 0.01742395
0.0088504 -0.00423052 0.01728794
-0.00462987 -0.00738342 0.01150428
-0.00492922 -0.00728256 0.01197589
-0.00492112 -0.0079037 0.01141673
-0.00563893 -0.00765939 0.01234756
-0.00528333 -0.0077677 0.01186396
-0.00576507 -0.00807477 0.01155376
-0.00534298 -0.00822018 0.01110324
-0.00527476 -0.00709868 0.01247976
-0.00571821 -0.00691262 0.01309962
-0.00575669 -0.00820324 0.01070389
-0.00612447 -0.00798409 0.01199066
-0.00633785 -0.00663565 0.01389434
-0.0061397 -0.00749778 0.01299117
-0.00624667 -0.00807397 0.01112531
-0.00668101 -0.00783254 0.01263156
-0.00706823 -0.00626749 0.01470659
-0.00681392 -0.00724942 0.01380292
-0.0061021 -0.00788424 0.01029654
-0.00660127 -0.00798579 0.01150473
-0.00754486 -0.00689469 0.01460698
-0.0074135 -0.00759464 0.01343673
-0.00797595 -0.00757884 0.01289389
-0.006594 -0.00776615 0.01069731
-0.00719712 -0.00782719 0.01211717
-0.00784324 -0.00583658 0.0154304
-0.00814628 -0.00724832 0.0142275
-0.00871124 -0.00723364 0.01366989
-0.00623922 -0.00733416 0.01003073
-0.00694159 -0.00766402 0.01101996
-0.00835053 -0.00720622 0.01231976
-0.00830576 -0.00643286 0.01533969
-0.00908847 -0.00685457 0.0130835
-0.00673334 -0.00721281 0.01034086
-0.0075497 -0.00748315 0.01158582
-0.00860047 -0.00538299 0.01606059
-0.00888647 -0.00676687 0.01498053
-0.00942963 -0.00674913 0.01444911
-0.00917685 -0.00621268 0.01262544
-0.00657316 -0.00660049 0.01023905
-0.00613091 -0.00675083 0.00995802
-0.00709008 -0.0071175 0.01062337
-0.00843692 -0.00657665 0.01186834
-0.00931479 -0.00496063 0.01659066
-0.00902679 -0.00593256 0.01597698
-0.00978976 -0.00638437 0.01388789
-0.00620025 -0.00604337 0.01036099
-0.0058161 -0.00622766 0.01006666
-0.0069206 -0.00645933 0.01052337
-0.00769215 -0.00690754 0.01114041
-0.00895266 -0.00547998 0.01241853
-0.00997827 -0.00457476 0.01700827
-0.00969227 -0.00544724 0.01651659
-0.00956195 -0.00624041 0.01564595
-0.00986879 -0.00577047 0.01344518
-0.00569647 -0.00574778 0.01067293
-0.00537705 -0.0059248 0.01035125
-0.00654125 -0.00589262 0.01067227
-0.00821189 -0.0058588 0.01166047
-0.00747608 -0.00620495 0.01097453
-0.0105853 -0.00423052 0.01728794
-0.01029337 -0.004981 0.01694646
-0.01006259 -0.00622406 0.0151562
-0.00964989 -0.00507157 0.01324511
-0.00524511 -0.00577959 0.01112131
-0.00494459 -0.00600889 0.01077828
-0.00605301 -0.0055516 0.01101221
-0.00847602 -0.00485277 0.01251815
-0.00773582 -0.00524504 0.01175183
-0.00703412 -0.00562869 0.01111666
-0.01116395 -0.00390827 0.01748633
-0.01082014 -0.0045332 0.01724188
-0.01016614 -0.00571982 0.0162235
-0.01039453 -0.00588787 0.01463892
-0.01046879 -0.00532195 0.01423273
-0.00490435 -0.00613251 0.01155808
-0.00465104 -0.00633747 0.0111395
-0.00918731 -0.00447529 0.01333582
-0.00649281 -0.00529394 0.01147628
-0.0078746 -0.00449913 0.01289757
-0.01170407 -0.00361508 0.01758272
-0.01130665 -0.00409227 0.01745833
-0.01068898 -0.00520855 0.01670175
-0.01060937 -0.00570533 0.01578988
-0.01096911 -0.00490659 0.01497221
-0.01026556 -0.00467791 0.01404653
-0.00478376 -0.00664795 0.01186124
-0.00454522 -0.00684533 0.01138086
-0.00557838 -0.00556562 0.01151234
-0.00713626 -0.00489981 0.01211802
-0.00860666 -0.00414128 0.01369499
-0.01174065 -0.00366225 0.01757556
-0.01111485 -0.00470275 0.01705956
-0.0109033 -0.00540767 0.01533182
-0.01078911 -0.00433634 0.0148073
-0.00983924 -0.00412834 0.01413008
-0.00462987 -0.00738342 0.01150428
-0.00597671 -0.00529929 0.01199066
-0.00524218 -0.0058932 0.01199821
-0.00657381 -0.00491562 0.01266092
-0.0118493 -0.00353931 0.01757323
-0.01148582 -0.00419532 0.01734749
-0.01105904 -0.00519646 0.01633975
-0.01041163 -0.00384973 0.01488131
-0.00930408 -0.00382049 0.01446118
-0.0113593 -0.00452964 0.01565718
-0.00512954 -0.00645221 0.01235188
-0.00492922 -0.00728256 0.01197589
-0.00730963 -0.00451382 0.01345524
-0.00562411 -0.00564332 0.01252202
-0.01182956 -0.00368727 0.01750511
-0.01178659 -0.00368868 0.01754711
-0.01139059 -0.00469374 0.01678982
-0.0113044 -0.00494797 0.01595737
-0.00993776 -0.00357715 0.01517447
-0.00880343 -0.00383685 0.01495092
-0.01089395 -0.00364735 0.0155813
-0.01120911 -0.00405358 0.0155195
-0.00527476 -0.00709868 0.01247976
-0.0080635 -0.00415902 0.0142264
-0.00619923 -0.00528824 0.01323498
-0.01176452 -0.0040773 0.01701033
-0.01165343 -0.00418984 0.01718356
-0.01184698 -0.00355457 0.01740982
-0.0118644 -0.00360985 0.01742581
-0.01157343 -0.00450859 0.01650498
-0.01049834 -0.00341979 0.01582595
-0.00949453 -0.00359163 0.01560808
-0.0115024 -0.0038422 0.01617866
-0.00552949 -0.00623384 0.01292789
-0.00693241 -0.0048929 0.01404163
-0.01185807 -0.00365842 0.01746072
-0.01172136 -0.00367223 0.01681201
-0.01161433 -0.0041969 0.01628124
-0.01097285 -0.00336997 0.01640705
-0.01012834 -0.00343188 0.01618801
-0.0092006 -0.0038893 0.01606607
-0.0084715 -0.00417303 0.01546821
-0.01172136 -0.00367223 0.01681201
-0.01126756 -0.00353952 0.01622473
-0.00611285 -0.00591781 0.01368647
-0.00571821 -0.00691262 0.01309962
-0.00770331 -0.00452378 0.01478762
-0.01178943 -0.00388783 0.0168744
-0.0115024 -0.0038422 0.01617866
-0.01069711 -0.00337898 0.01667679
-0.00988292 -0.00368038 0.01657033
-0.01184698 -0.00355457 0.01740982
-0.01157865 -0.00348824 0.01684001
-0.00633785 -0.00663565 0.01389434
-0.00684406 -0.00553478 0.01449963
-0.00839718 -0.00473895 0.01587433
-0.01051433 -0.00356413 0.01696169
-0.00982801 -0.0040987 0.01687059
-0.01123188 -0.00339065 0.01711479
-0.01181039 -0.0035074 0.01741704
-0.01139949 -0.00338518 0.01695085
-0.00706823 -0.00626749 0.01470659
-0.00762273 -0.0051378 0.01522833
-0.00913479 -0.00439039 0.01642575
-0.0118493 -0.00353931 0.01757323
-0.01112078 -0.0035032 0.01728801
-0.01047337 -0.00387582 0.01718536
-0.01176446 -0.00348098 0.01744543
-0.00784324 -0.00583658 0.0154304
-0.00931479 -0.00496063 0.01659066
-0.01169298 -0.00351124 0.01753188
-0.01109588 -0.00369266 0.01742395
-0.0105853 -0.00423052 0.01728794
-0.01172149 -0.00348238 0.01748749
-0.00860047 -0.00538299 0.01606059
-0.00997827 -0.00457476 0.01700827
-0.01168665 -0.00355981 0.01756672
-0.01116395 -0.00390827 0.01748633
-0.01170407 -0.00361508 0.01758272
0.00270043 -0.00611132 -0.01456786
0.00278608 -0.00591474 -0.0145781
0.00264719 -0.0060083 -0.0149192
0.00272717 -0.00579506 -0.01491901
0.00295382 -0.00576223 -0.01458117
0.00264503 -0.00597856 -0.01524321
0.00290624 -0.00562555 -0.01491934
0.00316092 -0.00568908 -0.01458338
0.00271808 -0.00576239 -0.01524658
0.00312079 -0.00553049 -0.01491952
0.00288904 -0.00560119 -0.01524645
0.00282943 -0.00594157 -0.01544665
0.0027609 -0.00610146 -0.01544325
0.00297464 -0.00581173 -0.01545263
0.0031652 -0.00572574 -0.01545919
0.00311371 -0.00549858 -0.01524638
0.00334715 -0.00552418 -0.01491941
0.00335695 -0.00548376 -0.01524616
0.00335632 -0.00570777 -0.01545663
0.00358417 -0.00555194 -0.01524627
0.00355995 -0.00574776 -0.01545844
0.0033285 -0.00568864 -0.01458118
0.00357268 -0.00560956 -0.01491904
0.00353509 -0.00575391 -0.01457488
0.00375075 -0.00572336 -0.01524253
0.00375556 -0.00577914 -0.01490938
0.00373386 -0.00588992 -0.01456578
0.00369382 -0.0058767 -0.01546042
0.00398725 -0.00612521 -0.01523246
0.00384315 -0.00618432 -0.01546878
0.00408832 -0.00673687 -0.01547187
0.00398249 -0.00613403 -0.01488784
0.00425254 -0.0066773 -0.01522031
0.00431991 -0.00724333 -0.01547724
0.00394024 -0.00619003 -0.01455498
0.00425326 -0.00665847 -0.01486119
0.00418783 -0.00666924 -0.01452089
0.00436145 -0.00713162 -0.01449292
0.00445514 -0.00715203 -0.0148508
0.00441149 -0.00742374 -0.01447465
0.0044807 -0.00718527 -0.01522543
0.00460285 -0.00768953 -0.01484443
0.00466963 -0.00778551 -0.01523637
0.00449293 -0.00784758 -0.01547313
0.00436882 -0.0077856 -0.01445152
0.00476953 -0.0083873 -0.01488894
0.00426939 -0.00799714 -0.01443972
0.00482874 -0.00847171 -0.01528057
0.00467335 -0.00852025 -0.01547714
0.00453007 -0.00856434 -0.01463486
0.00405529 -0.00816612 -0.01443274
0.00487852 -0.00901321 -0.01500255
0.00490895 -0.00898739 -0.01531196
0.00479517 -0.00902019 -0.01548922
0.00463068 -0.00909041 -0.01480112
0.00495718 -0.0095386 -0.01507901
0.00498012 -0.00952138 -0.01535236
0.00490039 -0.00953999 -0.01550619
0.00417139 -0.00865582 -0.01459136
0.00378549 -0.00826952 -0.01443063
0.00429949 -0.00917836 -0.01473543
0.00470159 -0.00960628 -0.01493569
0.00496649 -0.01013646 -0.01519018
0.0050173 -0.01012179 -0.01538977
0.00497424 -0.01012998 -0.01551384
0.00487105 -0.01063213 -0.01548173
0.00389445 -0.00872143 -0.01457396
0.00402228 -0.00924645 -0.01471225
0.00361811 -0.00878892 -0.01459397
0.00349889 -0.00829661 -0.01443281
0.00442292 -0.00968432 -0.01487439
0.00414672 -0.00975086 -0.01484204
0.00374773 -0.00930608 -0.01473763
0.00476354 -0.01018073 -0.01503689
0.00484591 -0.01061518 -0.01527775
0.00487527 -0.0106658 -0.01539639
0.00481152 -0.01065597 -0.01527507
0.00481897 -0.01068006 -0.01547661
0.00482727 -0.01071639 -0.01538126
0.00476508 -0.01070207 -0.01537674
0.00475216 -0.01066802 -0.01547125
0.00476271 -0.01063609 -0.01527283
0.00458352 -0.01036141 -0.01538152
0.0045872 -0.0103766 -0.01504831
0.00427979 -0.01031435 -0.0149813
0.00387084 -0.00982279 -0.01487594
0.00344265 -0.00936761 -0.01481472
0.00329709 -0.00882796 -0.01468069
0.00323628 -0.00824354 -0.01443934
0.00456023 -0.01026506 -0.01552915
0.00446023 -0.01084093 -0.01549648
0.00446521 -0.01084651 -0.01530796
0.00449513 -0.01090693 -0.01542454
0.00442661 -0.01092126 -0.01542252
0.00441354 -0.01086726 -0.01530367
0.00403482 -0.01051022 -0.01504831
0.0043581 -0.01087242 -0.01530796
0.00441228 -0.01086205 -0.01549648
0.00435998 -0.01086518 -0.01549648
0.0043591 -0.01093983 -0.01542454
0.00403116 -0.01049503 -0.01538153
0.00400783 -0.01039869 -0.01552915
0.00402049 -0.01084502 -0.01547125
0.00323524 -0.00941267 -0.01501293
0.00361249 -0.00988817 -0.01494544
0.003787 -0.01041627 -0.01503872
0.00340141 -0.0099377 -0.01510541
0.00399651 -0.01082144 -0.01527283
0.00402456 -0.01088121 -0.01537674
0.00396218 -0.01086144 -0.01527507
0.00396656 -0.01088626 -0.01547661
0.00397579 -0.01092237 -0.01538126
0.00390998 -0.01089931 -0.01539639
0.00389834 -0.01086744 -0.01548173
0.00391296 -0.01084087 -0.01527775
0.00357777 -0.01046198 -0.01536298
0.00360073 -0.01045908 -0.01518444
0.00335793 -0.00995113 -0.01530725
0.00319284 -0.00941265 -0.01525758
0.00363129 -0.01043801 -0.01549466
0.00343399 -0.00991715 -0.01547066
0.00328009 -0.00940018 -0.01543041
0.00316308 -0.00887918 -0.01540194
0.00305068 -0.00886661 -0.01520375
0.0030006 -0.00820487 -0.01540822
0.00306289 -0.00873971 -0.0148624
0.00288357 -0.00819623 -0.01519488
0.00288362 -0.00760683 -0.01541624
0.00305654 -0.00810056 -0.0144498
0.00288864 -0.00806854 -0.01486064
0.00288919 -0.00780747 -0.01446847
0.00275322 -0.00760643 -0.01519466
0.00274852 -0.00756515 -0.01486989
0.00265748 -0.00709411 -0.01520519
0.00282054 -0.00704859 -0.01542587
0.00277475 -0.00751806 -0.01448623
0.00270766 -0.00711987 -0.0145086
0.00264579 -0.0071181 -0.01487962
0.00265917 -0.00662687 -0.01454308
0.00260045 -0.00658683 -0.01489679
0.00270043 -0.00611132 -0.01456786
0.00264719 -0.0060083 -0.0149192
0.00261843 -0.00653309 -0.01522169
0.00264503 -0.00597856 -0.01524321
0.0027609 -0.00610146 -0.01544325
0.00275716 -0.00646333 -0.01543606
0.00270043 -0.00611132 -0.01456786
0.00265917 -0.00662687 -0.01454308
0.00234496 -0.00613854 -0.0144192
0.00229539 -0.00677637 -0.01442036
0.00270766 -0.00711987 -0.0145086
0.00207321 -0.00614677 -0.01424676
0.00233817 -0.00735994 -0.01437752
0.00277475 -0.00751806 -0.01448623
0.00198742 -0.00690021 -0.01424244
0.00177955 -0.0061451 -0.01405529
0.00243867 -0.00791286 -0.01432674
0.00288919 -0.00780747 -0.01446847
0.00202977 -0.0075962 -0.01419414
0.00167903 -0.00702829 -0.01403572
0.00144698 -0.00613209 -0.0138394
0.00260228 -0.00838478 -0.01427358
0.00305654 -0.00810056 -0.0144498
0.00214675 -0.00825353 -0.0141246
0.00171381 -0.00785787 -0.01395281
0.0013393 -0.00715302 -0.01379831
0.00105418 -0.00609735 -0.01358346
0.00284131 -0.00877823 -0.01422005
0.00323628 -0.00824354 -0.01443934
